-4624.000000 -244.922432 1068.161631
-4624.000000 -245.831084 1069.943301
-4624.000000 -246.739736 1071.724972
-4624.000000 -247.648388 1073.506643
-4624.000000 -248.557040 1075.288314
-4624.000000 -249.465692 1077.069985
-4624.000000 -250.374345 1078.851656
-4624.000000 -251.282997 1080.633327
-4624.000000 -252.191649 1082.414998
-4624.000000 -253.100301 1084.196669
-4624.000000 -254.008953 1085.978340
-4624.000000 -254.917605 1087.760011
-4624.000000 -255.826258 1089.541682
-4624.000000 -256.734910 1091.323352
-4624.000000 -257.643562 1093.105023
-4624.000000 -258.552214 1094.886694
-4624.000000 -259.460866 1096.668365
-4624.000000 -260.369518 1098.450036
-4624.000000 -261.278171 1100.231707
-4624.000000 -262.186823 1102.013378
-4624.000000 -263.095475 1103.795049
-4624.000000 -264.004127 1105.576720
-4624.000000 -264.912779 1107.358391
-4624.000000 -265.821431 1109.140062
-4624.000000 -266.730084 1110.921732
-4624.000000 -267.638736 1112.703403
-4624.000000 -268.547388 1114.485074
-4624.000000 -269.456040 1116.266745
-4624.000000 -270.364692 1118.048416
-4624.000000 -271.273344 1119.830087
-4624.000000 -272.181997 1121.611758
-4624.000000 -273.090649 1123.393429
-4624.000000 -273.999301 1125.175100
-4624.000000 -274.907953 1126.956771
-4624.000000 -275.816605 1128.738442
-4624.000000 -276.725257 1130.520113
-4624.000000 -277.633910 1132.301783
-4624.000000 -278.542562 1134.083454
-4624.000000 -279.451214 1135.865125
-4624.000000 -280.359866 1137.646796
-4624.000000 -281.268518 1139.428467
-4624.000000 -282.177170 1141.210138
-4624.000000 -283.085823 1142.991809
-4624.000000 -283.994475 1144.773480
-4624.000000 -284.903127 1146.555151
-4624.000000 -285.811779 1148.336822
-4624.000000 -286.720431 1150.118493
-4624.000000 -287.629083 1151.900163
-4624.000000 -288.537736 1153.681834
-4624.000000 -289.446388 1155.463505
-4624.000000 -290.355040 1157.245176
-4624.000000 -291.263692 1159.026847
-4624.000000 -292.172344 1160.808518
-4624.000000 -293.080996 1162.590189
-4624.000000 -293.989649 1164.371860
-4624.000000 -294.898301 1166.153531
-4624.000000 -295.806953 1167.935202
-4624.000000 -296.715605 1169.716873
-4624.000000 -297.624257 1171.498544
-4624.000000 -298.532909 1173.280214
-4624.000000 -299.441562 1175.061885
-4624.000000 -300.350214 1176.843556
-4624.000000 -301.258866 1178.625227
-4624.000000 -302.167518 1180.406898
-4624.000000 -303.076170 1182.188569
-4624.000000 -304.000000 1184.000000
-4624.000000 -305.397866 1185.430374
-4624.000000 -306.795732 1186.860749
-4624.000000 -308.193598 1188.291123
-4624.000000 -309.591464 1189.721498
-4624.000000 -310.989329 1191.151872
-4624.000000 -312.387195 1192.582246
-4624.000000 -313.785061 1194.012621
-4624.000000 -315.182927 1195.442995
-4624.000000 -316.580793 1196.873370
-4624.000000 -317.978659 1198.303744
-4624.000000 -319.376525 1199.734118
-4624.000000 -320.774391 1201.164493
-4624.000000 -322.172257 1202.594867
-4624.000000 -323.570123 1204.025242
-4624.000000 -324.967988 1205.455616
-4624.000000 -326.365854 1206.885990
-4624.000000 -327.763720 1208.316365
-4624.000000 -329.161586 1209.746739
-4624.000000 -330.559452 1211.177114
-4624.000000 -331.957318 1212.607488
-4624.000000 -333.355184 1214.037863
-4624.000000 -334.753050 1215.468237
-4624.000000 -336.150916 1216.898611
-4624.000000 -337.548781 1218.328986
-4624.000000 -338.946647 1219.759360
-4624.000000 -340.344513 1221.189735
-4624.000000 -341.742379 1222.620109
-4624.000000 -343.140245 1224.050483
-4624.000000 -344.538111 1225.480858
-4624.000000 -345.935977 1226.911232
-4624.000000 -347.333843 1228.341607
-4624.000000 -348.731709 1229.771981
-4624.000000 -350.129575 1231.202355
-4624.000000 -351.527440 1232.632730
-4624.000000 -352.925306 1234.063104
-4624.000000 -354.323172 1235.493479
-4624.000000 -355.721038 1236.923853
-4624.000000 -357.118904 1238.354227
-4624.000000 -358.516770 1239.784602
-4624.000000 -359.914636 1241.214976
-4624.000000 -361.312502 1242.645351
-4624.000000 -362.710368 1244.075725
-4624.000000 -364.108234 1245.506099
-4624.000000 -365.506099 1246.936474
-4624.000000 -366.903965 1248.366848
-4624.000000 -368.301831 1249.797223
-4624.000000 -369.699697 1251.227597
-4624.000000 -371.097563 1252.657971
-4624.000000 -372.495429 1254.088346
-4624.000000 -373.893295 1255.518720
-4624.000000 -375.291161 1256.949095
-4624.000000 -376.689027 1258.379469
-4624.000000 -378.086892 1259.809843
-4624.000000 -379.484758 1261.240218
-4624.000000 -380.882624 1262.670592
-4624.000000 -382.280490 1264.100967
-4624.000000 -383.678356 1265.531341
-4624.000000 -385.076222 1266.961715
-4624.000000 -386.474088 1268.392090
-4624.000000 -387.871954 1269.822464
-4624.000000 -389.269820 1271.252839
-4624.000000 -390.667686 1272.683213
-4624.000000 -392.065551 1274.113588
-4624.000000 -393.463417 1275.543962
-4624.000000 -394.861283 1276.974336
-4624.000000 -396.259149 1278.404711
-4624.000000 -397.657015 1279.835085
-4624.000000 -399.054881 1281.265460
-4624.000000 -400.452747 1282.695834
-4624.000000 -401.850613 1284.126208
-4624.000000 -403.248479 1285.556583
-4624.000000 -404.646344 1286.986957
-4624.000000 -406.044210 1288.417332
-4624.000000 -407.442076 1289.847706
-4624.000000 -408.839942 1291.278080
-4624.000000 -410.237808 1292.708455
-4624.000000 -411.635674 1294.138829
-4624.000000 -413.033540 1295.569204
-4624.000000 -414.431406 1296.999578
-4624.000000 -415.829272 1298.429952
-4624.000000 -417.227138 1299.860327
-4624.000000 -418.625003 1301.290701
-4624.000000 -420.022869 1302.721076
-4624.000000 -421.420735 1304.151450
-4624.000000 -422.818601 1305.581824
-4624.000000 -424.216467 1307.012199
-4624.000000 -425.614333 1308.442573
-4624.000000 -427.012199 1309.872948
-4624.000000 -428.410065 1311.303322
-4624.000000 -429.807931 1312.733696
-4624.000000 -431.205796 1314.164071
-4624.000000 -432.603662 1315.594445
-4624.000000 -434.001528 1317.024820
-4624.000000 -435.399394 1318.455194
-4624.000000 -436.797260 1319.885568
-4624.000000 -438.195126 1321.315943
-4624.000000 -439.592992 1322.746317
-4624.000000 -440.990858 1324.176692
-4624.000000 -442.388724 1325.607066
-4624.000000 -443.786590 1327.037440
-4624.000000 -445.184455 1328.467815
-4624.000000 -446.582321 1329.898189
-4624.000000 -447.980187 1331.328564
-4624.000000 -449.378053 1332.758938
-4624.000000 -450.775919 1334.189313
-4624.000000 -452.173785 1335.619687
-4624.000000 -453.571651 1337.050061
-4624.000000 -454.969517 1338.480436
-4624.000000 -456.367383 1339.910810
-4624.000000 -457.765249 1341.341185
-4624.000000 -459.163114 1342.771559
-4624.000000 -460.560980 1344.201933
-4624.000000 -461.958846 1345.632308
-4624.000000 -463.356712 1347.062682
-4624.000000 -464.754578 1348.493057
-4624.000000 -466.152444 1349.923431
-4624.000000 -467.550310 1351.353805
-4624.000000 -468.948176 1352.784180
-4624.000000 -470.346042 1354.214554
-4624.000000 -471.743907 1355.644929
-4624.000000 -473.141773 1357.075303
-4624.000000 -474.539639 1358.505677
-4624.000000 -475.937505 1359.936052
-4624.000000 -477.335371 1361.366426
-4624.000000 -478.733237 1362.796801
-4624.000000 -480.131103 1364.227175
-4624.000000 -481.528969 1365.657549
-4624.000000 -482.926835 1367.087924
-4624.000000 -484.324701 1368.518298
-4624.000000 -485.722566 1369.948673
-4624.000000 -487.120432 1371.379047
-4624.000000 -488.518298 1372.809421
-4624.000000 -489.916164 1374.239796
-4624.000000 -491.314030 1375.670170
-4624.000000 -492.711896 1377.100545
-4624.000000 -494.109762 1378.530919
-4624.000000 -495.507628 1379.961293
-4624.000000 -496.905494 1381.391668
-4624.000000 -498.303359 1382.822042
-4624.000000 -499.701225 1384.252417
-4624.000000 -501.099091 1385.682791
-4624.000000 -502.496957 1387.113165
-4624.000000 -503.894823 1388.543540
-4624.000000 -505.292689 1389.973914
-4624.000000 -506.690555 1391.404289
-4624.000000 -508.088421 1392.834663
-4624.000000 -509.486287 1394.265038
-4624.000000 -510.884153 1395.695412
-4624.000000 -512.282018 1397.125786
-4624.000000 -513.679884 1398.556161
-4624.000000 -515.077750 1399.986535
-4624.000000 -516.475616 1401.416910
-4624.000000 -517.873482 1402.847284
-4624.000000 -519.271348 1404.277658
-4624.000000 -520.669214 1405.708033
-4624.000000 -522.067080 1407.138407
-4624.000000 -523.464946 1408.568782
-4624.000000 -524.862812 1409.999156
-4624.000000 -526.260677 1411.429530
-4624.000000 -527.658543 1412.859905
-4624.000000 -529.056409 1414.290279
-4624.000000 -530.454275 1415.720654
-4624.000000 -531.852141 1417.151028
-4624.000000 -533.250007 1418.581402
-4624.000000 -534.647873 1420.011777
-4624.000000 -536.045739 1421.442151
-4624.000000 -537.443605 1422.872526
-4624.000000 -538.841470 1424.302900
-4624.000000 -540.239336 1425.733274
-4624.000000 -541.637202 1427.163649
-4624.000000 -543.035068 1428.594023
-4624.000000 -544.432934 1430.024398
-4624.000000 -545.830800 1431.454772
-4624.000000 -547.228666 1432.885146
-4624.000000 -548.626532 1434.315521
-4624.000000 -550.024398 1435.745895
-4624.000000 -551.422264 1437.176270
-4624.000000 -552.820129 1438.606644
-4624.000000 -554.217995 1440.037018
-4624.000000 -555.615861 1441.467393
-4624.000000 -557.013727 1442.897767
-4624.000000 -558.411593 1444.328142
-4624.000000 -559.809459 1445.758516
-4624.000000 -561.207325 1447.188890
-4624.000000 -562.605191 1448.619265
-4624.000000 -564.003057 1450.049639
-4624.000000 -565.400922 1451.480014
-4624.000000 -566.798788 1452.910388
-4624.000000 -568.196654 1454.340763
-4624.000000 -569.594520 1455.771137
-4624.000000 -570.992386 1457.201511
-4624.000000 -572.390252 1458.631886
-4624.000000 -573.788118 1460.062260
-4624.000000 -575.185984 1461.492635
-4624.000000 -576.583850 1462.923009
-4624.000000 -577.981716 1464.353383
-4624.000000 -579.379581 1465.783758
-4624.000000 -580.777447 1467.214132
-4624.000000 -582.175313 1468.644507
-4624.000000 -583.573179 1470.074881
-4624.000000 -584.971045 1471.505255
-4624.000000 -586.368911 1472.935630
-4624.000000 -587.766777 1474.366004
-4624.000000 -589.164643 1475.796379
-4624.000000 -590.562509 1477.226753
-4624.000000 -591.960374 1478.657127
-4624.000000 -593.358240 1480.087502
-4624.000000 -594.756106 1481.517876
-4624.000000 -596.153972 1482.948251
-4624.000000 -597.551838 1484.378625
-4624.000000 -598.949704 1485.808999
-4624.000000 -600.347570 1487.239374
-4624.000000 -601.745436 1488.669748
-4624.000000 -603.143302 1490.100123
-4624.000000 -604.541168 1491.530497
-4624.000000 -605.939033 1492.960871
-4624.000000 -607.336899 1494.391246
-4624.000000 -608.734765 1495.821620
-4624.000000 -610.132631 1497.251995
-4624.000000 -611.530497 1498.682369
-4624.000000 -612.928363 1500.112743
-4624.000000 -614.326229 1501.543118
-4624.000000 -615.724095 1502.973492
-4624.000000 -617.121961 1504.403867
-4624.000000 -618.519827 1505.834241
-4624.000000 -619.917692 1507.264615
-4624.000000 -621.315558 1508.694990
-4624.000000 -622.713424 1510.125364
-4624.000000 -624.111290 1511.555739
-4624.000000 -625.509156 1512.986113
-4624.000000 -626.907022 1514.416488
-4624.000000 -628.304888 1515.846862
-4624.000000 -629.702754 1517.277236
-4624.000000 -631.100620 1518.707611
-4624.000000 -632.498485 1520.137985
-4624.000000 -633.896351 1521.568360
-4624.000000 -635.294217 1522.998734
-4624.000000 -636.692083 1524.429108
-4624.000000 -638.089949 1525.859483
-4624.000000 -639.487815 1527.289857
-4624.000000 -640.885681 1528.720232
-4624.000000 -642.283547 1530.150606
-4624.000000 -643.681413 1531.580980
-4624.000000 -645.079279 1533.011355
-4624.000000 -646.477144 1534.441729
-4624.000000 -648.000000 1536.000000
-4626.000000 -648.000000 1536.000000
-4628.000000 -648.000000 1536.000000
-4630.000000 -648.000000 1536.000000
-4632.000000 -648.000000 1536.000000
-4634.000000 -648.000000 1536.000000
-4636.000000 -648.000000 1536.000000
-4638.000000 -648.000000 1536.000000
-4640.000000 -648.000000 1536.000000
-4642.000000 -648.000000 1536.000000
-4644.000000 -648.000000 1536.000000
-4646.000000 -648.000000 1536.000000
-4648.000000 -648.000000 1536.000000
-4650.000000 -648.000000 1536.000000
-4652.000000 -648.000000 1536.000000
-4654.000000 -648.000000 1536.000000
-4656.000000 -648.000000 1536.000000
-4658.000000 -648.000000 1536.000000
-4660.000000 -648.000000 1536.000000
-4662.000000 -648.000000 1536.000000
-4664.000000 -648.000000 1536.000000
-4666.000000 -648.000000 1536.000000
-4668.000000 -648.000000 1536.000000
-4670.000000 -648.000000 1536.000000
-4672.000000 -648.000000 1536.000000
-4674.000000 -648.000000 1536.000000
-4676.000000 -648.000000 1536.000000
-4678.000000 -648.000000 1536.000000
-4680.000000 -648.000000 1536.000000
-4682.000000 -648.000000 1536.000000
-4684.000000 -648.000000 1536.000000
-4686.000000 -648.000000 1536.000000
-4688.000000 -648.000000 1536.000000
-4690.000000 -648.000000 1536.000000
-4692.000000 -648.000000 1536.000000
-4694.000000 -648.000000 1536.000000
-4696.000000 -648.000000 1536.000000
-4698.000000 -648.000000 1536.000000
-4700.000000 -648.000000 1536.000000
-4702.000000 -648.000000 1536.000000
-4704.000000 -648.000000 1536.000000
-4706.000000 -648.000000 1536.000000
-4708.000000 -648.000000 1536.000000
-4710.000000 -648.000000 1536.000000
-4712.000000 -648.000000 1536.000000
-4714.000000 -648.000000 1536.000000
-4716.000000 -648.000000 1536.000000
-4718.000000 -648.000000 1536.000000
-4720.000000 -648.000000 1536.000000
-4722.000000 -648.000000 1536.000000
-4724.000000 -648.000000 1536.000000
-4726.000000 -648.000000 1536.000000
-4728.000000 -648.000000 1536.000000
-4730.000000 -648.000000 1536.000000
-4732.000000 -648.000000 1536.000000
-4734.000000 -648.000000 1536.000000
-4736.000000 -648.000000 1536.000000
-4738.000000 -648.000000 1536.000000
-4740.000000 -648.000000 1536.000000
-4742.000000 -648.000000 1536.000000
-4744.000000 -648.000000 1536.000000
-4746.000000 -648.000000 1536.000000
-4748.000000 -648.000000 1536.000000
-4750.000000 -648.000000 1536.000000
-4752.000000 -648.000000 1536.000000
-4754.000000 -648.000000 1536.000000
-4756.000000 -648.000000 1536.000000
-4758.000000 -648.000000 1536.000000
-4760.000000 -648.000000 1536.000000
-4762.000000 -648.000000 1536.000000
-4764.000000 -648.000000 1536.000000
-4766.000000 -648.000000 1536.000000
-4768.000000 -648.000000 1536.000000
-4770.000000 -648.000000 1536.000000
-4772.000000 -648.000000 1536.000000
-4774.000000 -648.000000 1536.000000
-4776.000000 -648.000000 1536.000000
-4778.000000 -648.000000 1536.000000
-4780.000000 -648.000000 1536.000000
-4782.000000 -648.000000 1536.000000
-4784.000000 -648.000000 1536.000000
-4786.000000 -648.000000 1536.000000
-4788.000000 -648.000000 1536.000000
-4790.000000 -648.000000 1536.000000
-4792.000000 -648.000000 1536.000000
-4794.000000 -648.000000 1536.000000
-4796.000000 -648.000000 1536.000000
-4798.000000 -648.000000 1536.000000
-4800.000000 -648.000000 1536.000000
-4802.000000 -648.000000 1536.000000
-4804.000000 -648.000000 1536.000000
-4806.000000 -648.000000 1536.000000
-4808.000000 -648.000000 1536.000000
-4810.000000 -648.000000 1536.000000
-4812.000000 -648.000000 1536.000000
-4814.000000 -648.000000 1536.000000
-4816.000000 -648.000000 1536.000000
-4818.000000 -648.000000 1536.000000
-4820.000000 -648.000000 1536.000000
-4822.000000 -648.000000 1536.000000
-4824.000000 -648.000000 1536.000000
-4826.000000 -648.000000 1536.000000
-4828.000000 -648.000000 1536.000000
-4830.000000 -648.000000 1536.000000
-4832.000000 -648.000000 1536.000000
-4834.000000 -648.000000 1536.000000
-4836.000000 -648.000000 1536.000000
-4838.000000 -648.000000 1536.000000
-4840.000000 -648.000000 1536.000000
-4842.000000 -648.000000 1536.000000
-4844.000000 -648.000000 1536.000000
-4846.000000 -648.000000 1536.000000
-4848.000000 -648.000000 1536.000000
-4850.000000 -648.000000 1536.000000
-4852.000000 -648.000000 1536.000000
-4854.000000 -648.000000 1536.000000
-4856.000000 -648.000000 1536.000000
-4858.000000 -648.000000 1536.000000
-4860.000000 -648.000000 1536.000000
-4862.000000 -648.000000 1536.000000
-4864.000000 -648.000000 1536.000000
-4866.000000 -648.000000 1536.000000
-4868.000000 -648.000000 1536.000000
-4870.000000 -648.000000 1536.000000
-4872.000000 -648.000000 1536.000000
-4874.000000 -648.000000 1536.000000
-4876.000000 -648.000000 1536.000000
-4878.000000 -648.000000 1536.000000
-4880.000000 -648.000000 1536.000000
-4882.000000 -648.000000 1536.000000
-4884.000000 -648.000000 1536.000000
-4886.000000 -648.000000 1536.000000
-4888.000000 -648.000000 1536.000000
-4890.000000 -648.000000 1536.000000
-4892.000000 -648.000000 1536.000000
-4894.000000 -648.000000 1536.000000
-4896.000000 -648.000000 1536.000000
-4898.000000 -648.000000 1536.000000
-4900.000000 -648.000000 1536.000000
-4902.000000 -648.000000 1536.000000
-4904.000000 -648.000000 1536.000000
-4906.000000 -648.000000 1536.000000
-4908.000000 -648.000000 1536.000000
-4910.000000 -648.000000 1536.000000
-4912.000000 -648.000000 1536.000000
-4914.000000 -648.000000 1536.000000
-4916.000000 -648.000000 1536.000000
-4918.000000 -648.000000 1536.000000
-4920.000000 -648.000000 1536.000000
-4922.000000 -648.000000 1536.000000
-4924.000000 -648.000000 1536.000000
-4926.000000 -648.000000 1536.000000
-4928.000000 -648.000000 1536.000000
-4930.000000 -648.000000 1536.000000
-4932.000000 -648.000000 1536.000000
-4934.000000 -648.000000 1536.000000
-4936.000000 -648.000000 1536.000000
-4938.000000 -648.000000 1536.000000
-4940.000000 -648.000000 1536.000000
-4942.000000 -648.000000 1536.000000
-4944.000000 -648.000000 1536.000000
-4946.000000 -648.000000 1536.000000
-4948.000000 -648.000000 1536.000000
-4950.000000 -648.000000 1536.000000
-4952.000000 -648.000000 1536.000000
-4954.000000 -648.000000 1536.000000
-4956.000000 -648.000000 1536.000000
-4958.000000 -648.000000 1536.000000
-4960.000000 -648.000000 1536.000000
-4962.000000 -648.000000 1536.000000
-4964.000000 -648.000000 1536.000000
-4966.000000 -648.000000 1536.000000
-4968.000000 -648.000000 1536.000000
-4972.000000 -648.000000 1536.000000
-4972.000000 -648.000000 1534.000000
-4972.000000 -648.000000 1532.000000
-4972.000000 -648.000000 1530.000000
-4972.000000 -648.000000 1528.000000
-4972.000000 -648.000000 1526.000000
-4972.000000 -648.000000 1524.000000
-4972.000000 -648.000000 1522.000000
-4972.000000 -648.000000 1520.000000
-4972.000000 -648.000000 1518.000000
-4972.000000 -648.000000 1516.000000
-4972.000000 -648.000000 1514.000000
-4972.000000 -648.000000 1512.000000
-4972.000000 -648.000000 1510.000000
-4972.000000 -648.000000 1508.000000
-4972.000000 -648.000000 1506.000000
-4972.000000 -648.000000 1504.000000
-4972.000000 -648.000000 1502.000000
-4972.000000 -648.000000 1500.000000
-4972.000000 -648.000000 1498.000000
-4972.000000 -648.000000 1496.000000
-4972.000000 -648.000000 1494.000000
-4972.000000 -648.000000 1492.000000
-4972.000000 -648.000000 1490.000000
-4972.000000 -648.000000 1488.000000
-4972.000000 -648.000000 1486.000000
-4972.000000 -648.000000 1484.000000
-4972.000000 -648.000000 1482.000000
-4972.000000 -648.000000 1480.000000
-4972.000000 -648.000000 1478.000000
-4972.000000 -648.000000 1476.000000
-4972.000000 -648.000000 1474.000000
-4972.000000 -648.000000 1472.000000
-4972.000000 -648.000000 1470.000000
-4972.000000 -648.000000 1468.000000
-4972.000000 -648.000000 1466.000000
-4972.000000 -648.000000 1464.000000
-4972.000000 -648.000000 1462.000000
-4972.000000 -648.000000 1460.000000
-4972.000000 -648.000000 1458.000000
-4972.000000 -648.000000 1456.000000
-4972.000000 -648.000000 1454.000000
-4972.000000 -648.000000 1452.000000
-4972.000000 -648.000000 1450.000000
-4972.000000 -648.000000 1448.000000
-4972.000000 -648.000000 1446.000000
-4972.000000 -648.000000 1444.000000
-4972.000000 -648.000000 1442.000000
-4972.000000 -648.000000 1440.000000
-4972.000000 -648.000000 1438.000000
-4972.000000 -648.000000 1436.000000
-4972.000000 -648.000000 1434.000000
-4972.000000 -648.000000 1432.000000
-4972.000000 -648.000000 1430.000000
-4972.000000 -648.000000 1428.000000
-4972.000000 -648.000000 1426.000000
-4972.000000 -648.000000 1424.000000
-4972.000000 -648.000000 1422.000000
-4972.000000 -648.000000 1420.000000
-4972.000000 -648.000000 1418.000000
-4972.000000 -648.000000 1416.000000
-4972.000000 -648.000000 1414.000000
-4972.000000 -648.000000 1412.000000
-4972.000000 -648.000000 1410.000000
-4972.000000 -648.000000 1408.000000
-4972.000000 -648.000000 1406.000000
-4972.000000 -648.000000 1404.000000
-4972.000000 -648.000000 1402.000000
-4972.000000 -648.000000 1400.000000
-4972.000000 -648.000000 1398.000000
-4972.000000 -648.000000 1396.000000
-4972.000000 -648.000000 1394.000000
-4972.000000 -648.000000 1392.000000
-4972.000000 -648.000000 1390.000000
-4972.000000 -648.000000 1388.000000
-4972.000000 -648.000000 1386.000000
-4972.000000 -648.000000 1384.000000
-4972.000000 -648.000000 1382.000000
-4972.000000 -648.000000 1380.000000
-4972.000000 -648.000000 1378.000000
-4972.000000 -648.000000 1376.000000
-4972.000000 -648.000000 1374.000000
-4972.000000 -648.000000 1372.000000
-4972.000000 -648.000000 1370.000000
-4972.000000 -648.000000 1368.000000
-4972.000000 -648.000000 1366.000000
-4972.000000 -648.000000 1364.000000
-4972.000000 -648.000000 1362.000000
-4972.000000 -648.000000 1360.000000
-4972.000000 -648.000000 1358.000000
-4972.000000 -648.000000 1356.000000
-4972.000000 -648.000000 1354.000000
-4972.000000 -648.000000 1352.000000
-4972.000000 -648.000000 1350.000000
-4972.000000 -648.000000 1348.000000
-4972.000000 -648.000000 1346.000000
-4972.000000 -648.000000 1344.000000
-4972.000000 -648.000000 1342.000000
-4972.000000 -648.000000 1340.000000
-4972.000000 -648.000000 1338.000000
-4972.000000 -648.000000 1336.000000
-4972.000000 -648.000000 1334.000000
-4972.000000 -648.000000 1332.000000
-4972.000000 -648.000000 1330.000000
-4972.000000 -648.000000 1328.000000
-4972.000000 -648.000000 1326.000000
-4972.000000 -648.000000 1324.000000
-4972.000000 -648.000000 1322.000000
-4972.000000 -648.000000 1320.000000
-4972.000000 -648.000000 1318.000000
-4972.000000 -648.000000 1316.000000
-4972.000000 -648.000000 1314.000000
-4972.000000 -648.000000 1312.000000
-4972.000000 -648.000000 1310.000000
-4972.000000 -648.000000 1308.000000
-4972.000000 -648.000000 1306.000000
-4972.000000 -648.000000 1304.000000
-4972.000000 -648.000000 1302.000000
-4972.000000 -648.000000 1300.000000
-4972.000000 -648.000000 1298.000000
-4972.000000 -648.000000 1296.000000
-4972.000000 -648.000000 1294.000000
-4972.000000 -648.000000 1292.000000
-4972.000000 -648.000000 1290.000000
-4972.000000 -648.000000 1288.000000
-4972.000000 -648.000000 1286.000000
-4972.000000 -648.000000 1284.000000
-4972.000000 -648.000000 1282.000000
-4972.000000 -648.000000 1280.000000
-4972.000000 -648.000000 1278.000000
-4972.000000 -648.000000 1276.000000
-4972.000000 -648.000000 1274.000000
-4972.000000 -648.000000 1272.000000
-4972.000000 -648.000000 1270.000000
-4972.000000 -648.000000 1268.000000
-4972.000000 -648.000000 1266.000000
-4972.000000 -648.000000 1264.000000
-4972.000000 -648.000000 1262.000000
-4972.000000 -648.000000 1260.000000
-4972.000000 -648.000000 1258.000000
-4972.000000 -648.000000 1256.000000
-4972.000000 -648.000000 1254.000000
-4972.000000 -648.000000 1252.000000
-4972.000000 -648.000000 1250.000000
-4972.000000 -648.000000 1248.000000
-4972.000000 -648.000000 1246.000000
-4972.000000 -648.000000 1244.000000
-4972.000000 -648.000000 1242.000000
-4972.000000 -648.000000 1240.000000
-4972.000000 -648.000000 1238.000000
-4972.000000 -648.000000 1236.000000
-4972.000000 -648.000000 1234.000000
-4972.000000 -648.000000 1232.000000
-4972.000000 -648.000000 1230.000000
-4972.000000 -648.000000 1228.000000
-4972.000000 -648.000000 1226.000000
-4972.000000 -648.000000 1224.000000
-4972.000000 -648.000000 1222.000000
-4972.000000 -648.000000 1220.000000
-4972.000000 -648.000000 1218.000000
-4972.000000 -648.000000 1216.000000
-4972.000000 -648.000000 1214.000000
-4972.000000 -648.000000 1212.000000
-4972.000000 -648.000000 1210.000000
-4972.000000 -648.000000 1208.000000
-4972.000000 -648.000000 1206.000000
-4972.000000 -648.000000 1204.000000
-4972.000000 -648.000000 1202.000000
-4972.000000 -648.000000 1200.000000
-4972.000000 -648.000000 1198.000000
-4972.000000 -648.000000 1196.000000
-4972.000000 -648.000000 1194.000000
-4972.000000 -648.000000 1192.000000
-4972.000000 -648.000000 1190.000000
-4972.000000 -648.000000 1188.000000
-4972.000000 -648.000000 1186.000000
-4972.000000 -648.000000 1184.000000
-4972.000000 -648.000000 1182.000000
-4972.000000 -648.000000 1180.000000
-4972.000000 -648.000000 1178.000000
-4972.000000 -648.000000 1176.000000
-4972.000000 -648.000000 1174.000000
-4972.000000 -648.000000 1172.000000
-4972.000000 -648.000000 1170.000000
-4972.000000 -648.000000 1168.000000
-4972.000000 -648.000000 1166.000000
-4972.000000 -648.000000 1164.000000
-4972.000000 -648.000000 1162.000000
-4972.000000 -648.000000 1160.000000
-4972.000000 -648.000000 1158.000000
-4972.000000 -648.000000 1156.000000
-4972.000000 -648.000000 1154.000000
-4972.000000 -648.000000 1152.000000
-4972.000000 -648.000000 1150.000000
-4972.000000 -648.000000 1148.000000
-4972.000000 -648.000000 1146.000000
-4972.000000 -648.000000 1144.000000
-4972.000000 -648.000000 1142.000000
-4972.000000 -648.000000 1140.000000
-4972.000000 -648.000000 1138.000000
-4972.000000 -648.000000 1136.000000
-4972.000000 -648.000000 1134.000000
-4972.000000 -648.000000 1132.000000
-4972.000000 -648.000000 1130.000000
-4972.000000 -648.000000 1128.000000
-4972.000000 -648.000000 1126.000000
-4972.000000 -648.000000 1124.000000
-4972.000000 -648.000000 1122.000000
-4972.000000 -648.000000 1120.000000
-4972.000000 -648.000000 1118.000000
-4972.000000 -648.000000 1116.000000
-4972.000000 -648.000000 1114.000000
-4972.000000 -648.000000 1112.000000
-4972.000000 -648.000000 1110.000000
-4972.000000 -648.000000 1108.000000
-4972.000000 -648.000000 1106.000000
-4972.000000 -648.000000 1104.000000
-4972.000000 -648.000000 1102.000000
-4972.000000 -648.000000 1100.000000
-4972.000000 -648.000000 1098.000000
-4972.000000 -648.000000 1096.000000
-4972.000000 -648.000000 1094.000000
-4972.000000 -648.000000 1092.000000
-4972.000000 -648.000000 1090.000000
-4972.000000 -648.000000 1088.000000
-4972.000000 -648.000000 1086.000000
-4972.000000 -648.000000 1084.000000
-4972.000000 -648.000000 1082.000000
-4972.000000 -648.000000 1080.000000
-4972.000000 -648.000000 1078.000000
-4972.000000 -648.000000 1076.000000
-4972.000000 -648.000000 1074.000000
-4972.000000 -648.000000 1072.000000
-4972.000000 -648.000000 1070.000000
-4972.000000 -648.000000 1068.000000
-4972.000000 -648.000000 1066.000000
-4972.000000 -648.000000 1064.000000
-4972.000000 -648.000000 1062.000000
-4972.000000 -648.000000 1060.000000
-4972.000000 -648.000000 1058.000000
-4972.000000 -648.000000 1056.000000
-4972.000000 -648.000000 1054.000000
-4972.000000 -648.000000 1052.000000
-4972.000000 -648.000000 1050.000000
-4972.000000 -648.000000 1048.000000
-4972.000000 -648.000000 1046.000000
-4972.000000 -648.000000 1044.000000
-4972.000000 -648.000000 1042.000000
-4972.000000 -648.000000 1040.000000
-4972.000000 -648.000000 1038.000000
-4972.000000 -648.000000 1036.000000
-4972.000000 -648.000000 1034.000000
-4972.000000 -648.000000 1032.000000
-4972.000000 -648.000000 1030.000000
-4972.000000 -648.000000 1028.000000
-4972.000000 -648.000000 1026.000000
-4972.000000 -648.000000 1024.000000
-4972.000000 -648.000000 1022.000000
-4972.000000 -648.000000 1020.000000
-4972.000000 -648.000000 1018.000000
-4972.000000 -648.000000 1016.000000
-4972.000000 -648.000000 1014.000000
-4972.000000 -648.000000 1012.000000
-4972.000000 -648.000000 1010.000000
-4972.000000 -648.000000 1008.000000
-4972.000000 -648.000000 1006.000000
-4972.000000 -648.000000 1004.000000
-4972.000000 -648.000000 1002.000000
-4972.000000 -648.000000 1000.000000
-4972.000000 -648.000000 998.000000
-4972.000000 -648.000000 996.000000
-4972.000000 -648.000000 994.000000
-4972.000000 -648.000000 992.000000
-4972.000000 -648.000000 990.000000
-4972.000000 -648.000000 988.000000
-4972.000000 -648.000000 986.000000
-4972.000000 -648.000000 984.000000
-4972.000000 -648.000000 982.000000
-4972.000000 -648.000000 980.000000
-4972.000000 -648.000000 978.000000
-4972.000000 -648.000000 976.000000
-4972.000000 -648.000000 974.000000
-4972.000000 -648.000000 972.000000
-4972.000000 -648.000000 970.000000
-4972.000000 -648.000000 968.000000
-4972.000000 -648.000000 966.000000
-4972.000000 -648.000000 964.000000
-4972.000000 -648.000000 962.000000
-4972.000000 -648.000000 960.000000
-4972.000000 -648.000000 958.000000
-4972.000000 -648.000000 956.000000
-4972.000000 -648.000000 954.000000
-4972.000000 -648.000000 952.000000
-4972.000000 -648.000000 950.000000
-4972.000000 -648.000000 948.000000
-4972.000000 -648.000000 946.000000
-4972.000000 -648.000000 944.000000
-4972.000000 -648.000000 942.000000
-4972.000000 -648.000000 940.000000
-4972.000000 -648.000000 938.000000
-4972.000000 -648.000000 936.000000
-4972.000000 -648.000000 934.000000
-4972.000000 -648.000000 932.000000
-4972.000000 -648.000000 930.000000
-4972.000000 -648.000000 928.000000
-4972.000000 -648.000000 926.000000
-4972.000000 -648.000000 924.000000
-4972.000000 -648.000000 922.000000
-4972.000000 -648.000000 920.000000
-4972.000000 -648.000000 918.000000
-4972.000000 -648.000000 916.000000
-4972.000000 -648.000000 914.000000
-4972.000000 -648.000000 912.000000
-4972.000000 -648.000000 910.000000
-4972.000000 -648.000000 908.000000
-4972.000000 -648.000000 906.000000
-4972.000000 -648.000000 904.000000
-4972.000000 -648.000000 902.000000
-4972.000000 -648.000000 900.000000
-4972.000000 -648.000000 898.000000
-4972.000000 -648.000000 896.000000
-4972.000000 -648.000000 894.000000
-4972.000000 -648.000000 892.000000
-4972.000000 -648.000000 890.000000
-4972.000000 -648.000000 888.000000
-4972.000000 -648.000000 886.000000
-4972.000000 -648.000000 884.000000
-4972.000000 -648.000000 882.000000
-4972.000000 -648.000000 880.000000
-4972.000000 -648.000000 878.000000
-4972.000000 -648.000000 876.000000
-4972.000000 -648.000000 874.000000
-4972.000000 -648.000000 872.000000
-4972.000000 -648.000000 870.000000
-4972.000000 -648.000000 868.000000
-4972.000000 -648.000000 864.000000
-4972.000000 -648.000000 862.000000
-4972.000000 -648.000000 860.000000
-4972.000000 -648.000000 858.000000
-4972.000000 -648.000000 856.000000
-4972.000000 -648.000000 854.000000
-4972.000000 -648.000000 852.000000
-4972.000000 -648.000000 850.000000
-4972.000000 -648.000000 848.000000
-4972.000000 -648.000000 846.000000
-4972.000000 -648.000000 844.000000
-4972.000000 -648.000000 842.000000
-4972.000000 -648.000000 840.000000
-4972.000000 -648.000000 838.000000
-4972.000000 -648.000000 836.000000
-4972.000000 -648.000000 834.000000
-4972.000000 -648.000000 832.000000
-4972.000000 -648.000000 830.000000
-4972.000000 -648.000000 828.000000
-4972.000000 -648.000000 826.000000
-4972.000000 -648.000000 824.000000
-4972.000000 -648.000000 822.000000
-4972.000000 -648.000000 820.000000
-4972.000000 -648.000000 818.000000
-4972.000000 -648.000000 816.000000
-4972.000000 -648.000000 814.000000
-4972.000000 -648.000000 812.000000
-4972.000000 -648.000000 810.000000
-4972.000000 -648.000000 808.000000
-4972.000000 -648.000000 806.000000
-4972.000000 -648.000000 804.000000
-4972.000000 -648.000000 802.000000
-4972.000000 -648.000000 800.000000
-4972.000000 -648.000000 798.000000
-4972.000000 -648.000000 796.000000
-4972.000000 -648.000000 794.000000
-4972.000000 -648.000000 792.000000
-4972.000000 -648.000000 790.000000
-4972.000000 -648.000000 788.000000
-4972.000000 -648.000000 786.000000
-4972.000000 -648.000000 784.000000
-4972.000000 -648.000000 782.000000
-4972.000000 -648.000000 780.000000
-4972.000000 -648.000000 778.000000
-4972.000000 -648.000000 776.000000
-4972.000000 -648.000000 774.000000
-4972.000000 -648.000000 772.000000
-4972.000000 -648.000000 770.000000
-4972.000000 -648.000000 768.000000
-4972.000000 -648.000000 766.000000
-4972.000000 -648.000000 764.000000
-4972.000000 -648.000000 762.000000
-4972.000000 -648.000000 760.000000
-4972.000000 -648.000000 758.000000
-4972.000000 -648.000000 756.000000
-4972.000000 -648.000000 754.000000
-4972.000000 -648.000000 752.000000
-4972.000000 -648.000000 750.000000
-4972.000000 -648.000000 748.000000
-4972.000000 -648.000000 746.000000
-4972.000000 -648.000000 744.000000
-4972.000000 -648.000000 742.000000
-4972.000000 -648.000000 740.000000
-4972.000000 -648.000000 738.000000
-4972.000000 -648.000000 736.000000
-4972.000000 -648.000000 734.000000
-4972.000000 -648.000000 732.000000
-4972.000000 -648.000000 730.000000
-4972.000000 -648.000000 728.000000
-4972.000000 -648.000000 726.000000
-4972.000000 -648.000000 724.000000
-4972.000000 -648.000000 722.000000
-4972.000000 -648.000000 720.000000
-4972.000000 -648.000000 718.000000
-4972.000000 -648.000000 716.000000
-4972.000000 -648.000000 714.000000
-4972.000000 -648.000000 712.000000
-4972.000000 -648.000000 710.000000
-4972.000000 -648.000000 708.000000
-4972.000000 -648.000000 706.000000
-4972.000000 -648.000000 704.000000
-4972.000000 -648.000000 702.000000
-4972.000000 -648.000000 700.000000
-4972.000000 -648.000000 698.000000
-4972.000000 -648.000000 696.000000
-4972.000000 -648.000000 694.000000
-4972.000000 -648.000000 692.000000
-4972.000000 -648.000000 690.000000
-4972.000000 -648.000000 688.000000
-4972.000000 -648.000000 686.000000
-4972.000000 -648.000000 684.000000
-4972.000000 -648.000000 682.000000
-4972.000000 -648.000000 680.000000
-4972.000000 -648.000000 678.000000
-4972.000000 -648.000000 676.000000
-4972.000000 -648.000000 674.000000
-4972.000000 -648.000000 672.000000
-4972.000000 -648.000000 670.000000
-4972.000000 -648.000000 668.000000
-4972.000000 -648.000000 666.000000
-4972.000000 -648.000000 664.000000
-4972.000000 -648.000000 662.000000
-4972.000000 -648.000000 660.000000
-4972.000000 -648.000000 658.000000
-4972.000000 -648.000000 656.000000
-4972.000000 -648.000000 654.000000
-4972.000000 -648.000000 652.000000
-4972.000000 -648.000000 650.000000
-4972.000000 -648.000000 648.000000
-4972.000000 -648.000000 646.000000
-4972.000000 -648.000000 644.000000
-4972.000000 -648.000000 642.000000
-4972.000000 -648.000000 640.000000
-4972.000000 -648.000000 638.000000
-4972.000000 -648.000000 636.000000
-4972.000000 -648.000000 634.000000
-4972.000000 -648.000000 632.000000
-4972.000000 -648.000000 630.000000
-4972.000000 -648.000000 628.000000
-4972.000000 -648.000000 626.000000
-4972.000000 -648.000000 624.000000
-4972.000000 -648.000000 622.000000
-4972.000000 -648.000000 620.000000
-4972.000000 -648.000000 618.000000
-4972.000000 -648.000000 616.000000
-4972.000000 -648.000000 614.000000
-4972.000000 -648.000000 612.000000
-4972.000000 -648.000000 610.000000
-4972.000000 -648.000000 608.000000
-4972.000000 -648.000000 606.000000
-4972.000000 -648.000000 604.000000
-4972.000000 -648.000000 602.000000
-4972.000000 -648.000000 600.000000
-4972.000000 -648.000000 598.000000
-4972.000000 -648.000000 596.000000
-4972.000000 -648.000000 594.000000
-4972.000000 -648.000000 592.000000
-4972.000000 -648.000000 590.000000
-4972.000000 -648.000000 588.000000
-4972.000000 -648.000000 586.000000
-4972.000000 -648.000000 584.000000
-4972.000000 -648.000000 582.000000
-4972.000000 -648.000000 580.000000
-4972.000000 -648.000000 578.000000
-4972.000000 -648.000000 576.000000
-4972.000000 -648.000000 574.000000
-4972.000000 -648.000000 572.000000
-4972.000000 -648.000000 570.000000
-4972.000000 -648.000000 568.000000
-4972.000000 -648.000000 566.000000
-4972.000000 -648.000000 564.000000
-4972.000000 -648.000000 562.000000
-4972.000000 -648.000000 560.000000
-4972.000000 -648.000000 558.000000
-4972.000000 -648.000000 556.000000
-4972.000000 -648.000000 554.000000
-4972.000000 -648.000000 552.000000
-4972.000000 -648.000000 550.000000
-4972.000000 -648.000000 548.000000
-4972.000000 -648.000000 546.000000
-4972.000000 -648.000000 544.000000
-4972.000000 -648.000000 542.000000
-4972.000000 -648.000000 540.000000
-4972.000000 -648.000000 538.000000
-4972.000000 -648.000000 536.000000
-4972.000000 -648.000000 534.000000
-4972.000000 -648.000000 532.000000
-4972.000000 -648.000000 530.000000
-4972.000000 -648.000000 528.000000
-4972.000000 -648.000000 526.000000
-4972.000000 -648.000000 524.000000
-4972.000000 -648.000000 522.000000
-4972.000000 -648.000000 520.000000
-4972.000000 -648.000000 518.000000
-4972.000000 -648.000000 516.000000
-4972.000000 -648.000000 514.000000
-4972.000000 -648.000000 512.000000
-4972.000000 -648.000000 510.000000
-4972.000000 -648.000000 508.000000
-4972.000000 -648.000000 506.000000
-4972.000000 -648.000000 504.000000
-4972.000000 -648.000000 502.000000
-4972.000000 -648.000000 500.000000
-4972.000000 -648.000000 498.000000
-4972.000000 -648.000000 496.000000
-4972.000000 -648.000000 494.000000
-4972.000000 -648.000000 492.000000
-4972.000000 -648.000000 490.000000
-4972.000000 -648.000000 488.000000
-4972.000000 -648.000000 486.000000
-4972.000000 -648.000000 484.000000
-4972.000000 -648.000000 482.000000
-4972.000000 -648.000000 480.000000
-4972.000000 -648.000000 478.000000
-4972.000000 -648.000000 476.000000
-4972.000000 -648.000000 474.000000
-4972.000000 -648.000000 472.000000
-4972.000000 -648.000000 470.000000
-4972.000000 -648.000000 468.000000
-4972.000000 -648.000000 466.000000
-4972.000000 -648.000000 464.000000
-4972.000000 -648.000000 462.000000
-4972.000000 -648.000000 460.000000
-4972.000000 -648.000000 458.000000
-4972.000000 -648.000000 456.000000
-4972.000000 -648.000000 454.000000
-4972.000000 -648.000000 452.000000
-4972.000000 -648.000000 450.000000
-4972.000000 -648.000000 448.000000
-4972.000000 -648.000000 446.000000
-4972.000000 -648.000000 444.000000
-4972.000000 -648.000000 442.000000
-4972.000000 -648.000000 440.000000
-4972.000000 -648.000000 438.000000
-4972.000000 -648.000000 436.000000
-4972.000000 -648.000000 434.000000
-4972.000000 -648.000000 432.000000
-4972.000000 -648.000000 430.000000
-4972.000000 -648.000000 428.000000
-4972.000000 -648.000000 426.000000
-4972.000000 -648.000000 424.000000
-4972.000000 -648.000000 422.000000
-4972.000000 -648.000000 420.000000
-4972.000000 -648.000000 418.000000
-4972.000000 -648.000000 416.000000
-4972.000000 -648.000000 414.000000
-4972.000000 -648.000000 412.000000
-4972.000000 -648.000000 410.000000
-4972.000000 -648.000000 408.000000
-4972.000000 -648.000000 406.000000
-4972.000000 -648.000000 404.000000
-4972.000000 -648.000000 402.000000
-4972.000000 -648.000000 400.000000
-4972.000000 -648.000000 398.000000
-4972.000000 -648.000000 396.000000
-4972.000000 -648.000000 394.000000
-4972.000000 -648.000000 392.000000
-4972.000000 -648.000000 390.000000
-4972.000000 -648.000000 388.000000
-4972.000000 -648.000000 384.000000
-4972.000000 -649.975271 383.686465
-4972.000000 -651.950542 383.372930
-4972.000000 -653.925813 383.059395
-4972.000000 -655.901084 382.745860
-4972.000000 -657.876355 382.432325
-4972.000000 -659.851626 382.118789
-4972.000000 -661.826897 381.805254
-4972.000000 -663.802168 381.491719
-4972.000000 -665.777440 381.178184
-4972.000000 -667.752711 380.864649
-4972.000000 -669.727982 380.551114
-4972.000000 -671.703253 380.237579
-4972.000000 -673.678524 379.924044
-4972.000000 -675.653795 379.610509
-4972.000000 -677.629066 379.296974
-4972.000000 -679.604337 378.983439
-4972.000000 -681.579608 378.669903
-4972.000000 -683.554879 378.356368
-4972.000000 -685.530150 378.042833
-4972.000000 -687.505421 377.729298
-4972.000000 -689.480692 377.415763
-4972.000000 -691.455963 377.102228
-4972.000000 -693.431234 376.788693
-4972.000000 -695.406505 376.475158
-4972.000000 -697.381776 376.161623
-4972.000000 -699.357047 375.848088
-4972.000000 -701.332319 375.534553
-4972.000000 -703.307590 375.221018
-4972.000000 -705.282861 374.907482
-4972.000000 -707.258132 374.593947
-4972.000000 -709.233403 374.280412
-4972.000000 -711.208674 373.966877
-4972.000000 -713.183945 373.653342
-4972.000000 -715.159216 373.339807
-4972.000000 -717.134487 373.026272
-4972.000000 -719.109758 372.712737
-4972.000000 -721.085029 372.399202
-4972.000000 -723.060300 372.085667
-4972.000000 -725.035571 371.772132
-4972.000000 -727.010842 371.458596
-4972.000000 -728.986113 371.145061
-4972.000000 -730.961384 370.831526
-4972.000000 -732.936655 370.517991
-4972.000000 -734.911927 370.204456
-4972.000000 -736.887198 369.890921
-4972.000000 -738.862469 369.577386
-4972.000000 -740.837740 369.263851
-4972.000000 -742.813011 368.950316
-4972.000000 -744.788282 368.636781
-4972.000000 -746.763553 368.323246
-4972.000000 -748.738824 368.009710
-4972.000000 -750.714095 367.696175
-4972.000000 -752.689366 367.382640
-4972.000000 -754.664637 367.069105
-4972.000000 -756.639908 366.755570
-4972.000000 -758.615179 366.442035
-4972.000000 -760.590450 366.128500
-4972.000000 -762.565721 365.814965
-4972.000000 -764.540992 365.501430
-4972.000000 -766.516263 365.187895
-4972.000000 -768.491534 364.874360
-4972.000000 -770.466806 364.560825
-4972.000000 -772.442077 364.247289
-4972.000000 -774.417348 363.933754
-4972.000000 -776.392619 363.620219
-4972.000000 -778.367890 363.306684
-4972.000000 -780.343161 362.993149
-4972.000000 -782.318432 362.679614
-4972.000000 -784.293703 362.366079
-4972.000000 -786.268974 362.052544
-4972.000000 -788.244245 361.739009
-4972.000000 -790.219516 361.425474
-4972.000000 -792.194787 361.111939
-4972.000000 -794.170058 360.798403
-4972.000000 -796.145329 360.484868
-4972.000000 -798.120600 360.171333
-4972.000000 -800.095871 359.857798
-4972.000000 -802.071142 359.544263
-4972.000000 -804.046413 359.230728
-4972.000000 -806.021685 358.917193
-4972.000000 -807.996956 358.603658
-4972.000000 -809.972227 358.290123
-4972.000000 -811.947498 357.976588
-4972.000000 -813.922769 357.663053
-4972.000000 -815.898040 357.349517
-4972.000000 -817.873311 357.035982
-4972.000000 -819.848582 356.722447
-4972.000000 -821.823853 356.408912
-4972.000000 -823.799124 356.095377
-4972.000000 -825.774395 355.781842
-4972.000000 -827.749666 355.468307
-4972.000000 -829.724937 355.154772
-4972.000000 -831.700208 354.841237
-4972.000000 -833.675479 354.527702
-4972.000000 -835.650750 354.214167
-4972.000000 -837.626021 353.900632
-4972.000000 -839.601293 353.587096
-4972.000000 -841.576564 353.273561
-4972.000000 -843.551835 352.960026
-4972.000000 -845.527106 352.646491
-4972.000000 -847.502377 352.332956
-4972.000000 -849.477648 352.019421
-4972.000000 -851.452919 351.705886
-4972.000000 -853.428190 351.392351
-4972.000000 -855.403461 351.078816
-4972.000000 -857.378732 350.765281
-4972.000000 -859.354003 350.451746
-4972.000000 -861.329274 350.138210
-4972.000000 -863.304545 349.824675
-4972.000000 -865.279816 349.511140
-4972.000000 -867.255087 349.197605
-4972.000000 -869.230358 348.884070
-4972.000000 -871.205629 348.570535
-4972.000000 -873.180900 348.257000
-4972.000000 -875.156172 347.943465
-4972.000000 -877.131443 347.629930
-4972.000000 -879.106714 347.316395
-4972.000000 -881.081985 347.002860
-4972.000000 -883.057256 346.689324
-4972.000000 -885.032527 346.375789
-4972.000000 -887.007798 346.062254
-4972.000000 -888.983069 345.748719
-4972.000000 -890.958340 345.435184
-4972.000000 -892.933611 345.121649
-4972.000000 -894.908882 344.808114
-4972.000000 -896.884153 344.494579
-4972.000000 -898.859424 344.181044
-4972.000000 -900.834695 343.867509
-4972.000000 -902.809966 343.553974
-4972.000000 -904.785237 343.240439
-4972.000000 -906.760508 342.926903
-4972.000000 -908.735780 342.613368
-4972.000000 -910.711051 342.299833
-4972.000000 -912.686322 341.986298
-4972.000000 -914.661593 341.672763
-4972.000000 -916.636864 341.359228
-4972.000000 -918.612135 341.045693
-4972.000000 -920.587406 340.732158
-4972.000000 -922.562677 340.418623
-4972.000000 -924.537948 340.105088
-4972.000000 -926.513219 339.791553
-4972.000000 -928.488490 339.478017
-4972.000000 -930.463761 339.164482
-4972.000000 -932.439032 338.850947
-4972.000000 -934.414303 338.537412
-4972.000000 -936.389574 338.223877
-4972.000000 -938.364845 337.910342
-4972.000000 -940.340116 337.596807
-4972.000000 -942.315387 337.283272
-4972.000000 -944.290659 336.969737
-4972.000000 -946.265930 336.656202
-4972.000000 -948.241201 336.342667
-4972.000000 -950.216472 336.029131
-4972.000000 -952.191743 335.715596
-4972.000000 -954.167014 335.402061
-4972.000000 -956.142285 335.088526
-4972.000000 -958.117556 334.774991
-4972.000000 -960.092827 334.461456
-4972.000000 -962.068098 334.147921
-4972.000000 -964.043369 333.834386
-4972.000000 -966.018640 333.520851
-4972.000000 -967.993911 333.207316
-4972.000000 -969.969182 332.893781
-4972.000000 -971.944453 332.580246
-4972.000000 -973.919724 332.266710
-4972.000000 -975.894995 331.953175
-4972.000000 -977.870267 331.639640
-4972.000000 -979.845538 331.326105
-4972.000000 -981.820809 331.012570
-4972.000000 -983.796080 330.699035
-4972.000000 -985.771351 330.385500
-4972.000000 -987.746622 330.071965
-4972.000000 -989.721893 329.758430
-4972.000000 -991.697164 329.444895
-4972.000000 -993.672435 329.131360
-4972.000000 -995.647706 328.817824
-4972.000000 -997.622977 328.504289
-4972.000000 -999.598248 328.190754
-4972.000000 -1001.573519 327.877219
-4972.000000 -1003.548790 327.563684
-4972.000000 -1005.524061 327.250149
-4972.000000 -1007.499332 326.936614
-4972.000000 -1009.474603 326.623079
-4972.000000 -1011.449874 326.309544
-4972.000000 -1013.425146 325.996009
-4972.000000 -1015.400417 325.682474
-4972.000000 -1017.375688 325.368938
-4972.000000 -1019.350959 325.055403
-4972.000000 -1021.326230 324.741868
-4972.000000 -1023.301501 324.428333
-4972.000000 -1025.276772 324.114798
-4972.000000 -1027.252043 323.801263
-4972.000000 -1029.227314 323.487728
-4972.000000 -1031.202585 323.174193
-4972.000000 -1033.177856 322.860658
-4972.000000 -1035.153127 322.547123
-4972.000000 -1037.128398 322.233588
-4972.000000 -1039.103669 321.920052
-4972.000000 -1041.078940 321.606517
-4972.000000 -1043.054211 321.292982
-4972.000000 -1045.029482 320.979447
-4972.000000 -1047.004753 320.665912
-4972.000000 -1048.980025 320.352377
-4972.000000 -1050.955296 320.038842
-4972.000000 -1052.930567 319.725307
-4972.000000 -1054.905838 319.411772
-4972.000000 -1056.881109 319.098237
-4972.000000 -1058.856380 318.784702
-4972.000000 -1060.831651 318.471167
-4972.000000 -1062.806922 318.157631
-4972.000000 -1064.782193 317.844096
-4972.000000 -1066.757464 317.530561
-4972.000000 -1068.732735 317.217026
-4972.000000 -1070.708006 316.903491
-4972.000000 -1072.683277 316.589956
-4972.000000 -1074.658548 316.276421
-4972.000000 -1076.633819 315.962886
-4972.000000 -1078.609090 315.649351
-4972.000000 -1080.584361 315.335816
-4972.000000 -1082.559633 315.022281
-4972.000000 -1084.534904 314.708745
-4972.000000 -1086.510175 314.395210
-4972.000000 -1088.485446 314.081675
-4972.000000 -1090.460717 313.768140
-4972.000000 -1092.435988 313.454605
-4972.000000 -1094.411259 313.141070
-4972.000000 -1096.386530 312.827535
-4972.000000 -1098.361801 312.514000
-4972.000000 -1100.337072 312.200465
-4972.000000 -1102.312343 311.886930
-4972.000000 -1104.287614 311.573395
-4972.000000 -1106.262885 311.259859
-4972.000000 -1108.238156 310.946324
-4972.000000 -1110.213427 310.632789
-4972.000000 -1112.188698 310.319254
-4972.000000 -1114.163969 310.005719
-4972.000000 -1116.139240 309.692184
-4972.000000 -1118.114512 309.378649
-4972.000000 -1120.089783 309.065114
-4972.000000 -1122.065054 308.751579
-4972.000000 -1124.040325 308.438044
-4972.000000 -1126.015596 308.124509
-4972.000000 -1127.990867 307.810974
-4972.000000 -1129.966138 307.497438
-4972.000000 -1131.941409 307.183903
-4972.000000 -1133.916680 306.870368
-4972.000000 -1135.891951 306.556833
-4972.000000 -1137.867222 306.243298
-4972.000000 -1139.842493 305.929763
-4972.000000 -1141.817764 305.616228
-4972.000000 -1143.793035 305.302693
